# .PCD v0.7 - Point Cloud Data file format
VERSION 0.7
FIELDS x y z rgb
SIZE 4 4 4 4
TYPE F F F U
COUNT 1 1 1 1
WIDTH 1351
HEIGHT 1
VIEWPOINT 0 0 0 1 0 0 0
POINTS 1351
DATA ascii
-0.066035613 -0.44223922 -1.6333308 0
-0.055436909 -0.44212544 -1.6347545 0
-0.04376344 -0.44248313 -1.6333562 0
-0.035136286 -0.44214574 -1.6343715 0
-0.024840001 -0.44232145 -1.6349572 0
-0.014434563 -0.44288188 -1.6335938 0
-0.0046251402 -0.44229698 -1.63432 0
0.0044688024 -0.44231373 -1.634725 0
0.015135277 -0.44287056 -1.6333834 0
0.025219308 -0.44207615 -1.6342078 0
0.034056429 -0.44216076 -1.6353215 0
0.04542885 -0.44216463 -1.6350539 0
0.054967899 -0.44285101 -1.63638 0
0.064715452 -0.44253275 -1.6353444 0
0.07479725 -0.44271088 -1.6356416 0
0.084365219 -0.44397661 -1.6349612 0
0.094090372 -0.44324777 -1.6347611 0
0.10531221 -0.44409612 -1.6350332 0
0.11478572 -0.44210285 -1.6355572 0
0.12524286 -0.44317764 -1.6338477 0
0.13426428 -0.44314286 -1.6347857 0
0.14517999 -0.44289726 -1.6348999 0
0.15485501 -0.44335431 -1.6346428 0
0.16479167 -0.44301331 -1.6367667 0
0.17486049 -0.44418448 -1.635185 0
0.18548399 -0.44411668 -1.6354667 0
0.19510938 -0.44396684 -1.6355813 0
0.20457333 -0.44360748 -1.6346583 0
0.215114 -0.44436055 -1.6358401 0
0.22494669 -0.44509396 -1.63564 0
0.23508 -0.44297355 -1.6362941 0
0.24475476 -0.44453329 -1.6348763 0
0.25440437 -0.4435831 -1.6353749 0
0.26472849 -0.44503745 -1.634145 0
0.27517787 -0.44430569 -1.6349 0
0.28532943 -0.44515586 -1.6344765 0
0.29570732 -0.443214 -1.6359934 0
0.30568376 -0.44510067 -1.6349313 0
0.31537226 -0.44395086 -1.6353546 0
0.32503736 -0.44462872 -1.6347867 0
0.3352553 -0.44552824 -1.6351117 0
0.34559938 -0.44486308 -1.6352875 0
0.35499385 -0.44539306 -1.6345384 0
0.36432266 -0.44419929 -1.6357601 0
0.37523749 -0.44675919 -1.634992 0
0.3848058 -0.44615754 -1.634925 0
0.39479166 -0.44482777 -1.6352168 0
0.40506399 -0.44527867 -1.6358933 0
0.41507885 -0.44504589 -1.6359645 0
0.42483404 -0.44414535 -1.6359932 0
0.4350425 -0.44496 -1.6356375 0
0.44549942 -0.44587946 -1.6355224 0
0.45421901 -0.44623598 -1.63471 0
0.466443 -0.44535798 -1.6340201 0
0.47540921 -0.44430071 -1.6354769 0
0.48480073 -0.44592142 -1.6344429 0
0.49417931 -0.44514433 -1.6342928 0
0.50127 -0.44303 -1.6336333 0
0.58769 -0.444628 -1.63524 0
0.59533405 -0.44542733 -1.6351867 0
0.60586399 -0.44549268 -1.63542 0
0.61446428 -0.44427425 -1.6348286 0
0.62530768 -0.4459877 -1.6352692 0
0.63576359 -0.44652089 -1.6357001 0
0.64532822 -0.44571638 -1.635709 0
0.65460002 -0.44467926 -1.6348923 0
0.66480583 -0.4443092 -1.6356667 0
0.67465001 -0.44504562 -1.6356945 0
0.68460858 -0.44459146 -1.6364428 0
0.69483495 -0.44468281 -1.6357554 0
0.70428497 -0.44422913 -1.6348 0
0.71548873 -0.44505748 -1.6343375 0
0.72532552 -0.44572088 -1.6362636 0
0.73401695 -0.44511303 -1.63445 0
0.74491864 -0.44558001 -1.6354929 0
0.7547127 -0.44567537 -1.6347932 0
0.76554459 -0.4454408 -1.6352309 0
0.77471226 -0.44612232 -1.6342926 0
0.78607363 -0.44605905 -1.6345909 0
0.7952922 -0.4445433 -1.6356224 0
0.80483222 -0.44474077 -1.6346614 0
0.81250376 -0.44465625 -1.6345375 0
-1.0123 -0.43689331 -1.6322001 0
-1.0049875 -0.43583629 -1.6355751 0
-0.99630743 -0.43478501 -1.634975 0
-0.84024 -0.43123999 -1.6374 0
-0.83427548 -0.43376997 -1.6365889 0
-0.82502359 -0.43683001 -1.6352358 0
-0.81436789 -0.43646216 -1.6362287 0
-0.80477929 -0.43669596 -1.6363066 0
-0.79435086 -0.43670365 -1.6356636 0
-0.78605139 -0.43711358 -1.63635 0
-0.77532268 -0.43748179 -1.6350181 0
-0.76473349 -0.43690354 -1.6355785 0
-0.75565636 -0.43676361 -1.636893 0
-0.74462658 -0.43742833 -1.63585 0
-0.73543841 -0.43673617 -1.6371922 0
-0.72521186 -0.43770877 -1.6353438 0
-0.71513003 -0.43801212 -1.6341572 0
-0.70598137 -0.43664289 -1.6369215 0
-0.69386357 -0.43642282 -1.6361358 0
-0.68552995 -0.43726727 -1.6360275 0
-0.67549998 -0.43687624 -1.6354562 0
-0.66451687 -0.43674815 -1.6354187 0
-0.6557228 -0.43713927 -1.6364499 0
-0.6447227 -0.43653458 -1.6344638 0
-0.63494635 -0.43632239 -1.635106 0
-0.62490726 -0.43726999 -1.6360091 0
-0.6149888 -0.43734765 -1.6362647 0
-0.60459369 -0.43765813 -1.6356819 0
-0.59409255 -0.43699995 -1.6342915 0
-0.5852043 -0.43713623 -1.6352314 0
-0.57544285 -0.43681002 -1.6358058 0
-0.5647282 -0.43763274 -1.6362363 0
-0.55681854 -0.43705145 -1.6361214 0
-0.54516596 -0.43770599 -1.63393 0
-0.53493065 -0.43749875 -1.6365561 0
-0.52389908 -0.43736902 -1.6352999 0
-0.51457793 -0.43707782 -1.6343715 0
-0.50461286 -0.43679571 -1.6351072 0
-0.49361545 -0.43730909 -1.6373546 0
-0.48474357 -0.43664142 -1.6364499 0
-0.47572726 -0.43782723 -1.6357455 0
-0.46586794 -0.43812999 -1.63491 0
-0.45503154 -0.43739998 -1.6341769 0
-0.44551298 -0.43730175 -1.6360941 0
-0.43430877 -0.43722874 -1.6363499 0
-0.42449072 -0.43785143 -1.6354141 0
-0.41416538 -0.43812382 -1.6378076 0
-0.40452176 -0.43818361 -1.6359364 0
-0.39526999 -0.4376446 -1.636546 0
-0.38483599 -0.438878 -1.6370001 0
-0.3749207 -0.43746644 -1.6367142 0
-0.36522833 -0.43735835 -1.6372417 0
-0.35543799 -0.43768898 -1.6352199 0
-0.3439872 -0.43792146 -1.6360859 0
-0.33454663 -0.43804222 -1.6365 0
-0.32512403 -0.43803996 -1.63648 0
-0.31537625 -0.43821627 -1.637925 0
-0.30536538 -0.43760613 -1.6379308 0
-0.29485252 -0.43863833 -1.6355249 0
-0.28494126 -0.43820122 -1.6371249 0
-0.27318999 -0.43882751 -1.63625 0
-0.26392201 -0.43767101 -1.6357599 0
-0.25522998 -0.43784666 -1.6357557 0
-0.24498333 -0.4384484 -1.6348333 0
-0.234749 -0.43789402 -1.6365799 0
-0.22592665 -0.43883666 -1.6351835 0
-0.214596 -0.43847004 -1.63679 0
-0.20381749 -0.43810749 -1.6372918 0
-0.19511858 -0.43865141 -1.6368999 0
-0.18527001 -0.43845752 -1.6380001 0
-0.17436916 -0.43833169 -1.6375585 0
-0.16484 -0.43901333 -1.6369168 0
-0.15591399 -0.438445 -1.63799 0
-0.14393285 -0.43867999 -1.6379143 0
-0.13498667 -0.43889335 -1.6364666 0
-0.126027 -0.43825898 -1.6359899 0
-0.1167125 -0.43893749 -1.63815 0
-0.10563166 -0.4388617 -1.6374334 0
-0.096505202 -0.43863201 -1.6373199 0
-0.085234821 -0.43882361 -1.6353456 0
-0.075374328 -0.43888664 -1.6364332 0
-0.065421782 -0.43844777 -1.6372778 0
-0.059068002 -0.437765 -1.6386 0
-0.041857835 -0.43842497 -1.63895 0
-0.035088144 -0.43858144 -1.6366571 0
-0.025484752 -0.43842122 -1.6378875 0
-0.013028334 -0.43946335 -1.6354666 0
-0.0061510252 -0.4390575 -1.6370749 0
0.0076305 -0.43896499 -1.6398001 0
0.015116833 -0.43861166 -1.6364502 0
0.022557 -0.43867999 -1.6388 0
0.032049 -0.43926501 -1.63785 0
0.048405498 -0.439935 -1.6372 0
0.055473998 -0.43898001 -1.6399 0
0.074577004 -0.43871999 -1.6389 0
0.085348003 -0.43979001 -1.6367 0
0.095251784 -0.43830109 -1.6381667 0
0.104805 -0.4378075 -1.6388 0
0.125525 -0.43939501 -1.6382999 0
0.15731999 -0.43996 -1.6373 0
0.20810001 -0.43893 -1.6397001 0
0.22341999 -0.43866 -1.6387 0
0.23332 -0.43865001 -1.6387 0
0.24731 -0.43996 -1.6373 0
0.50288999 -0.43983001 -1.6305 0
0.58656001 -0.43672001 -1.6347001 0
0.59423751 -0.43829247 -1.6389501 0
0.70398498 -0.438835 -1.6362 0
0.80637997 -0.43968999 -1.6363 0
-0.99365497 -0.42848998 -1.6366999 0
-0.83894002 -0.42813998 -1.6354001 0
-0.36443001 -0.45107001 -1.6204 0
-0.18312 -0.45096999 -1.6201 0
-0.14142999 -0.45131499 -1.6213 0
-0.072858334 -0.45103002 -1.6202666 0
-0.067483 -0.45100999 -1.6202 0
-0.021575 -0.45192999 -1.6235 0
-0.0122315 -0.451395 -1.6215999 0
-0.0049286401 -0.45081797 -1.62204 0
0.0040665497 -0.45098251 -1.6232749 0
0.016252 -0.45021001 -1.6237 0
0.045981202 -0.45090398 -1.62236 0
0.051226001 -0.45105001 -1.6203001 0
0.063470997 -0.451125 -1.6206501 0
0.077298 -0.45166999 -1.62255 0
0.085428998 -0.45073 -1.622375 0
0.094233006 -0.45099002 -1.6217 0
0.10314333 -0.45145667 -1.6217999 0
0.11544 -0.451395 -1.6215999 0
0.12502334 -0.45082667 -1.6216666 0
0.13546126 -0.451395 -1.6224 0
0.14620145 -0.45198283 -1.6210144 0
0.154625 -0.4513675 -1.621525 0
0.16593201 -0.45121998 -1.6222401 0
0.175234 -0.45121998 -1.62476 0
0.18505 -0.45127112 -1.6225778 0
0.19602801 -0.45068803 -1.62286 0
0.20337142 -0.45145711 -1.6218573 0
0.21382801 -0.452526 -1.6219 0
0.22492625 -0.45246375 -1.6230875 0
0.23521999 -0.45096597 -1.6225799 0
0.24518716 -0.45274714 -1.6219714 0
0.25377998 -0.45157498 -1.6230501 0
0.264965 -0.45118669 -1.6240333 0
0.27560583 -0.45210084 -1.6236167 0
0.28427249 -0.45207751 -1.62405 0
0.29449573 -0.45125288 -1.6247 0
0.30496857 -0.45197853 -1.6237142 0
0.31309626 -0.45162252 -1.6231999 0
0.32811001 -0.45039001 -1.6243 0
0.33491603 -0.45192105 -1.6222502 0
0.34491402 -0.45240003 -1.6214201 0
0.35552907 -0.45212004 -1.6224998 0
0.36525086 -0.45257249 -1.6226999 0
0.37478665 -0.45244411 -1.6243333 0
0.384018 -0.45162001 -1.62306 0
0.39541885 -0.45190778 -1.6234667 0
0.40519363 -0.45179722 -1.6236364 0
0.41621113 -0.45230997 -1.6241889 0
0.42428201 -0.45240903 -1.6239898 0
0.43552235 -0.45204151 -1.6229692 0
0.447045 -0.45139003 -1.62265 0
0.45555407 -0.45230302 -1.6236099 0
0.46480751 -0.45246914 -1.6239084 0
0.47535428 -0.45265147 -1.6234214 0
0.48586002 -0.45280996 -1.6246001 0
0.49126664 -0.45252001 -1.6235666 0
0.57713997 -0.45111001 -1.62375 0
0.58517593 -0.452447 -1.62413 0
0.595406 -0.45219296 -1.62321 0
0.60526001 -0.45384374 -1.6217376 0
0.6149807 -0.45246285 -1.6232001 0
0.6257875 -0.45170373 -1.6235125 0
0.63547808 -0.45231399 -1.6236598 0
0.64499217 -0.45266002 -1.6219445 0
0.65592885 -0.45264891 -1.624022 0
0.66488498 -0.45302999 -1.6222415 0
0.67508554 -0.45217445 -1.6237112 0
0.68535 -0.45186299 -1.62393 0
0.69630665 -0.45283499 -1.62155 0
0.7049244 -0.45180666 -1.6223665 0
0.71663833 -0.451695 -1.6237335 0
0.72516572 -0.45345002 -1.6244857 0
0.7350356 -0.45306644 -1.6235715 0
0.74534339 -0.45322666 -1.6240168 0
0.75474316 -0.45350462 -1.6224308 0
0.76542091 -0.45312998 -1.6238183 0
0.77563077 -0.45255747 -1.6231583 0
0.78572911 -0.45349336 -1.6218082 0
0.79487252 -0.45237124 -1.6235499 0
0.80378503 -0.45253497 -1.6241375 0
0.81620896 -0.45254096 -1.6250999 0
0.8251878 -0.45314333 -1.6222888 0
0.83219999 -0.45282 -1.6204 0
-1.0242 -0.44163334 -1.6219333 0
-1.0151201 -0.44249898 -1.62414 0
-1.0045 -0.44231084 -1.623475 0
-0.99505448 -0.4421111 -1.6237888 0
-0.98764253 -0.44121751 -1.622575 0
-0.94568998 -0.44225001 -1.6201 0
-0.81461275 -0.44169179 -1.6237727 0
-0.80551773 -0.44314539 -1.6257845 0
-0.79445845 -0.44323462 -1.6256461 0
-0.78491271 -0.44350201 -1.6246799 0
-0.77484268 -0.44385198 -1.6251334 0
-0.76465505 -0.44287667 -1.6255417 0
-0.75441998 -0.44392067 -1.6253144 0
-0.74485683 -0.44388926 -1.6241229 0
-0.73558927 -0.44442335 -1.6254798 0
-0.72569263 -0.4444207 -1.6238003 0
-0.71572697 -0.44303998 -1.62486 0
-0.70601004 -0.44352499 -1.6252666 0
-0.69592911 -0.4427036 -1.6269093 0
-0.68390614 -0.4431839 -1.6264154 0
-0.67538273 -0.44333458 -1.6257637 0
-0.66466063 -0.443165 -1.6238374 0
-0.65482086 -0.44274247 -1.6250416 0
-0.64469665 -0.44247833 -1.6251251 0
-0.63497287 -0.44297352 -1.6249999 0
-0.62486005 -0.44338304 -1.624215 0
-0.61532611 -0.44313845 -1.6247845 0
-0.60499793 -0.44340798 -1.6251601 0
-0.59447867 -0.44260338 -1.6234866 0
-0.58555365 -0.44364786 -1.6238286 0
-0.57527125 -0.44416749 -1.6243314 0
-0.56559211 -0.44302076 -1.6256286 0
-0.55505532 -0.44333237 -1.6247824 0
-0.54493076 -0.44338861 -1.6242214 0
-0.53517586 -0.44384411 -1.624794 0
-0.5249669 -0.44401503 -1.6241686 0
-0.51539391 -0.4441272 -1.6251835 0
-0.50526851 -0.44434768 -1.6258079 0
-0.49502534 -0.4432967 -1.6260198 0
-0.48559922 -0.44376543 -1.6241691 0
-0.47536311 -0.4436956 -1.6249688 0
-0.46502811 -0.44479752 -1.6238688 0
-0.45474046 -0.44460654 -1.62553 0
-0.44540685 -0.44446748 -1.6250376 0
-0.43498799 -0.44322464 -1.6257532 0
-0.42501923 -0.44362384 -1.6256076 0
-0.41585797 -0.44355801 -1.6257068 0
-0.40459833 -0.4428525 -1.6254584 0
-0.39427882 -0.44444412 -1.6232647 0
-0.38483602 -0.44480151 -1.6252749 0
-0.37532902 -0.44518 -1.6241348 0
-0.36469471 -0.44427946 -1.6251631 0
-0.355266 -0.44405735 -1.6266934 0
-0.34524754 -0.44519702 -1.6248353 0
-0.33493546 -0.44437268 -1.6255455 0
-0.32496145 -0.44558284 -1.6241571 0
-0.31492293 -0.44619823 -1.6241002 0
-0.30426353 -0.44489497 -1.624995 0
-0.29479253 -0.4449335 -1.624815 0
-0.28542501 -0.44516006 -1.6258347 0
-0.2745541 -0.44607934 -1.6243942 0
-0.26533052 -0.4468458 -1.6241843 0
-0.25533 -0.44518828 -1.6253002 0
-0.24430525 -0.4459731 -1.6246895 0
-0.23529465 -0.44546327 -1.6250666 0
-0.22451119 -0.44574291 -1.624653 0
-0.21443403 -0.44541755 -1.6253201 0
-0.20500635 -0.44603187 -1.6258727 0
-0.19543749 -0.44599998 -1.624325 0
-0.18488054 -0.4468179 -1.6247684 0
-0.17518668 -0.44604087 -1.6244668 0
-0.16624665 -0.44589078 -1.6257252 0
-0.15504469 -0.44586122 -1.6247176 0
-0.14463945 -0.4470678 -1.624661 0
-0.13475455 -0.44592631 -1.6248819 0
-0.12525684 -0.44638896 -1.6248792 0
-0.11476842 -0.44550529 -1.6253263 0
-0.10512461 -0.44647843 -1.6243464 0
-0.095939294 -0.44625118 -1.6243001 0
-0.085086875 -0.44564995 -1.6265752 0
-0.074766278 -0.4464044 -1.6240165 0
-0.064340852 -0.44663998 -1.6247998 0
-0.05576532 -0.44630688 -1.6258948 0
-0.044326212 -0.44660214 -1.6246859 0
-0.0350134 -0.44630066 -1.6264333 0
-0.025378423 -0.44703999 -1.6255684 0
-0.015078881 -0.44752291 -1.6244413 0
-0.0045369738 -0.44685754 -1.6246563 0
0.0050733434 -0.44631073 -1.6257001 0
0.015379599 -0.44758597 -1.6247798 0
0.025459222 -0.44739607 -1.6248112 0
0.035492651 -0.4467212 -1.6259763 0
0.044357263 -0.4467389 -1.6261526 0
0.055610847 -0.44700044 -1.6247648 0
0.065355919 -0.44752535 -1.6247309 0
0.074920781 -0.44678608 -1.6257557 0
0.085699409 -0.44855103 -1.6253401 0
0.095653169 -0.44736585 -1.6250418 0
0.10466501 -0.44800416 -1.6257666 0
0.1153561 -0.44740444 -1.6255279 0
0.124704 -0.44836998 -1.6259501 0
0.13627072 -0.44748572 -1.627 0
0.14417817 -0.44759092 -1.6251817 0
0.1546825 -0.44753066 -1.6251187 0
0.16474693 -0.44787842 -1.6255383 0
0.17519857 -0.44806147 -1.6277572 0
0.18489636 -0.44788453 -1.6274456 0
0.19590336 -0.44799444 -1.6270111 0
0.20532334 -0.44758251 -1.6263748 0
0.21507445 -0.4486911 -1.6245555 0
0.22468452 -0.44852817 -1.6263181 0
0.23384167 -0.44795418 -1.6272 0
0.24532001 -0.44897249 -1.6272001 0
0.25482899 -0.44816899 -1.6264999 0
0.26498801 -0.448744 -1.6273201 0
0.27458429 -0.44807714 -1.6278 0
0.28490251 -0.44845751 -1.6277125 0
0.29446334 -0.44810116 -1.6287999 0
0.30379114 -0.4487389 -1.6275666 0
0.31540856 -0.44903287 -1.6267143 0
0.32420555 -0.44879225 -1.6270667 0
0.33609831 -0.44916999 -1.6273834 0
0.34455401 -0.44884998 -1.6264101 0
0.35511002 -0.44865167 -1.6276499 0
0.36436665 -0.44820893 -1.6270556 0
0.37451747 -0.44851002 -1.6287 0
0.38485 -0.44890332 -1.6285501 0
0.39352003 -0.448874 -1.6277802 0
0.40377998 -0.44864431 -1.6280286 0
0.4155975 -0.44847625 -1.6269876 0
0.42635 -0.44867498 -1.6277 0
0.43569168 -0.44890335 -1.6285334 0
0.44400501 -0.44955 -1.626075 0
0.45511499 -0.44869003 -1.6277666 0
0.46532625 -0.447815 -1.627775 0
0.47415 -0.44755754 -1.6268374 0
0.48527402 -0.44939598 -1.62712 0
0.49434376 -0.44763499 -1.6262625 0
0.57776999 -0.44622335 -1.6240667 0
0.58382332 -0.44693109 -1.6280223 0
0.59371996 -0.449085 -1.6292 0
0.60518378 -0.44852749 -1.6239876 0
0.61611807 -0.44817001 -1.62778 0
0.62639827 -0.44874501 -1.6269001 0
0.63455802 -0.44781598 -1.6265199 0
0.64624375 -0.44858876 -1.625775 0
0.65481877 -0.44776496 -1.6283375 0
0.66366857 -0.44823426 -1.6274716 0
0.67694998 -0.44865599 -1.6270001 0
0.68488252 -0.44822252 -1.6260749 0
0.69434375 -0.44911876 -1.626925 0
0.70496333 -0.44807667 -1.6273112 0
0.71433669 -0.44844499 -1.6268834 0
0.72509003 -0.44812497 -1.6250499 0
0.73592794 -0.44707999 -1.6288601 0
0.74322999 -0.44738001 -1.6293499 0
0.75393999 -0.44891801 -1.6267 0
0.76425499 -0.4489775 -1.6288 0
0.77522749 -0.44871497 -1.6278501 0
0.78437501 -0.44963253 -1.6264 0
0.79511666 -0.44839835 -1.6267166 0
0.80532664 -0.44894329 -1.6276001 0
0.810525 -0.44883502 -1.62825 0
-1.0159 -0.43845001 -1.6295667 0
-1.00605 -0.43811166 -1.6272832 0
-0.99537599 -0.43770805 -1.62644 0
-0.98684502 -0.435195 -1.6243751 0
-0.83591002 -0.43386999 -1.6273 0
-0.82554996 -0.4382 -1.6262 0
-0.81407332 -0.43929002 -1.6285334 0
-0.80586499 -0.43927503 -1.62845 0
-0.79321504 -0.43948501 -1.62925 0
-0.78349501 -0.439475 -1.6292 0
-0.77526999 -0.43938002 -1.6288667 0
-0.76659501 -0.43899 -1.6274 0
-0.69853997 -0.43895331 -1.6293668 0
-0.67149001 -0.43928 -1.6285 0
-0.66483337 -0.43890333 -1.6270666 0
-0.65662998 -0.43959001 -1.6296 0
-0.63518333 -0.43945333 -1.6291 0
-0.62331003 -0.43959999 -1.6297001 0
-0.61329997 -0.43966502 -1.6266 0
-0.59333998 -0.43957502 -1.6296 0
-0.58449 -0.43963 -1.6298 0
-0.56518 -0.43954501 -1.6294999 0
-0.55162001 -0.43924001 -1.6283 0
-0.54622 -0.43965 -1.6299 0
-0.52247 -0.43924001 -1.6283 0
-0.51815999 -0.439275 -1.62845 0
-0.46483001 -0.43906 -1.6277 0
-0.45809001 -0.438685 -1.6294 0
-0.42285001 -0.43965 -1.6298 0
0.33375001 -0.46048 -1.6101 0
0.36177 -0.46072 -1.6168 0
0.42535001 -0.46256 -1.6115 0
0.46717 -0.46072999 -1.6109999 0
0.47457662 -0.46095333 -1.6118001 0
0.58740997 -0.46156001 -1.6110001 0
0.59429139 -0.46142858 -1.6126 0
0.62332994 -0.46167669 -1.6104001 0
0.63732666 -0.46064332 -1.6126333 0
0.64484799 -0.46105999 -1.6121401 0
0.73874998 -0.46057999 -1.6105 0
0.74602002 -0.46388 -1.6101 0
0.75695997 -0.46250999 -1.6114 0
0.76170498 -0.462255 -1.6105001 0
0.77293003 -0.46101999 -1.612 0
0.78478003 -0.46074 -1.6109999 0
0.79848999 -0.46046999 -1.6101 0
0.80941999 -0.46066999 -1.6166 0
0.81369495 -0.46013999 -1.61475 0
0.82456499 -0.46011502 -1.61465 0
0.83973002 -0.46261001 -1.6117001 0
0.84241003 -0.46215001 -1.6101 0
-1.0251666 -0.45067999 -1.6127667 0
-1.0132 -0.45343 -1.6102 0
-1.0054001 -0.45158285 -1.6115716 0
-0.99679565 -0.45210999 -1.6125715 0
-0.98655999 -0.45199001 -1.6112499 0
-0.80409998 -0.45093003 -1.612125 0
-0.79549247 -0.45170879 -1.6125751 0
-0.78705502 -0.45047998 -1.6120501 0
-0.77719998 -0.45194501 -1.6111 0
-0.76256001 -0.45177001 -1.6105 0
-0.75488502 -0.45032001 -1.6115 0
-0.74548537 -0.45210269 -1.6122181 0
-0.73472166 -0.45132503 -1.6119833 0
-0.72436225 -0.45120001 -1.6139445 0
-0.71704 -0.45160666 -1.6119666 0
-0.70638996 -0.45086667 -1.6113666 0
-0.69765604 -0.45091802 -1.6111399 0
-0.68437999 -0.45109397 -1.6117599 0
-0.67547393 -0.45149797 -1.61072 0
-0.66417754 -0.451105 -1.6111749 0
-0.65431339 -0.45029333 -1.6114 0
-0.64583194 -0.45124197 -1.6110799 0
-0.6225425 -0.45072249 -1.6129251 0
-0.60500997 -0.45039502 -1.6117499 0
-0.59476995 -0.45130333 -1.6119 0
-0.58541751 -0.45109999 -1.6127 0
-0.574435 -0.45099998 -1.6129001 0
-0.56519198 -0.45130402 -1.6112801 0
-0.55330288 -0.45111427 -1.6134571 0
-0.54548335 -0.45185331 -1.6117998 0
-0.53558594 -0.45145202 -1.61243 0
-0.52302504 -0.45023 -1.61115 0
-0.514745 -0.45056498 -1.6124001 0
-0.50418574 -0.45206714 -1.6115429 0
-0.49497622 -0.45169377 -1.6117375 0
-0.488765 -0.45113 -1.6113 0
-0.47729197 -0.45213598 -1.6117601 0
-0.46394002 -0.45072001 -1.611375 0
-0.45558006 -0.45188999 -1.61215 0
-0.44517219 -0.45152447 -1.6137334 0
-0.43636125 -0.45198876 -1.612025 0
-0.4255183 -0.45140001 -1.61225 0
-0.41612446 -0.45174 -1.6117334 0
-0.40445778 -0.45168555 -1.6122111 0
-0.39535251 -0.45158499 -1.612875 0
-0.38526222 -0.45112222 -1.6136777 0
-0.37475434 -0.45136142 -1.6125572 0
-0.36510751 -0.45215127 -1.6118125 0
-0.35539466 -0.45227927 -1.6126866 0
-0.34403226 -0.45136002 -1.6145222 0
-0.33546627 -0.45153999 -1.6135375 0
-0.32419199 -0.45152801 -1.61269 0
-0.3148067 -0.45142832 -1.6133833 0
-0.30503303 -0.45131597 -1.6144301 0
-0.29470462 -0.45265847 -1.6145923 0
-0.285835 -0.45238581 -1.6136833 0
-0.27546445 -0.45168003 -1.6142666 0
-0.26453233 -0.45146459 -1.614154 0
-0.25442082 -0.45142666 -1.6139083 0
-0.24467099 -0.45192099 -1.61599 0
-0.23538001 -0.45211411 -1.6138823 0
-0.22352582 -0.45229003 -1.6128082 0
-0.21588998 -0.45253697 -1.6138 0
-0.20549572 -0.45222643 -1.6142857 0
-0.19485059 -0.45329183 -1.6127563 0
-0.18483688 -0.45245874 -1.6140749 0
-0.17461076 -0.4525246 -1.6150693 0
-0.16513138 -0.45321044 -1.6138498 0
-0.15506499 -0.45255712 -1.6150358 0
-0.14525335 -0.45269749 -1.6137581 0
-0.13508101 -0.45179003 -1.6142499 0
-0.12490068 -0.45218197 -1.6144199 0
-0.11415556 -0.45281389 -1.6138225 0
-0.10507833 -0.45237827 -1.6136667 0
-0.096092209 -0.45219865 -1.613764 0
-0.084692955 -0.45259556 -1.614789 0
-0.074849784 -0.45294359 -1.6146642 0
-0.064529851 -0.45307642 -1.613757 0
-0.055171747 -0.45241126 -1.6150687 0
-0.044998948 -0.45322052 -1.6146264 0
-0.034315132 -0.45237267 -1.6150932 0
-0.024853293 -0.45344764 -1.6138059 0
-0.015922043 -0.45458785 -1.6138611 0
-0.0039664996 -0.45364812 -1.6151812 0
0.0053785201 -0.45446265 -1.6132666 0
0.013921555 -0.45285389 -1.6153388 0
0.025780411 -0.45265529 -1.6143235 0
0.035084441 -0.4537867 -1.61555 0
0.044475462 -0.45359802 -1.6148599 0
0.055298503 -0.45250502 -1.6146249 0
0.065513298 -0.45430452 -1.6144249 0
0.074047305 -0.45378229 -1.6141307 0
0.085582867 -0.45341495 -1.6155125 0
0.095016368 -0.45489267 -1.6142948 0
0.10500287 -0.45364219 -1.6158001 0
0.114692 -0.45481944 -1.615015 0
0.12593238 -0.45462337 -1.6149049 0
0.13461058 -0.45558062 -1.6139706 0
0.14449894 -0.45532265 -1.6151316 0
0.15542276 -0.45457616 -1.6145 0
0.16474751 -0.45353749 -1.6151918 0
0.17485227 -0.4547841 -1.6148545 0
0.18483286 -0.45478359 -1.6139857 0
0.19471 -0.45455241 -1.6164477 0
0.20582429 -0.45493788 -1.6159071 0
0.2144679 -0.45503688 -1.6154053 0
0.22522077 -0.45521456 -1.6145154 0
0.23529111 -0.45472717 -1.6157111 0
0.24457495 -0.45464283 -1.6148144 0
0.25496471 -0.454757 -1.6147943 0
0.26487446 -0.45479 -1.6163334 0
0.274988 -0.45650801 -1.6134131 0
0.28543943 -0.4551841 -1.6159528 0
0.29496223 -0.45508724 -1.6152337 0
0.30451688 -0.45532373 -1.6152499 0
0.31529397 -0.45489132 -1.6152669 0
0.32463077 -0.45523286 -1.61594 0
0.33515111 -0.45621419 -1.6142842 0
0.34559947 -0.45556581 -1.6153053 0
0.35486233 -0.45583075 -1.6152229 0
0.36502075 -0.45727688 -1.615 0
0.37545428 -0.45638356 -1.6147002 0
0.38523999 -0.45619684 -1.6148895 0
0.39567313 -0.45616624 -1.6158875 0
0.4054164 -0.45611498 -1.6169144 0
0.41452998 -0.45637813 -1.6150188 0
0.4254621 -0.45614001 -1.6156642 0
0.43547231 -0.45666614 -1.6152616 0
0.44433823 -0.45605117 -1.6152885 0
0.45478821 -0.45693004 -1.6154587 0
0.46434 -0.45657578 -1.6149001 0
0.47472858 -0.45736068 -1.6136286 0
0.48415363 -0.45543453 -1.6149819 0
0.49112499 -0.45251 -1.6162 0
0.57530665 -0.45600536 -1.6149669 0
0.58513224 -0.45673159 -1.6159848 0
0.59538442 -0.45604566 -1.6165814 0
0.60537821 -0.45705634 -1.6154908 0
0.61517298 -0.45731896 -1.6150301 0
0.62468189 -0.45615879 -1.6166312 0
0.63483244 -0.45643416 -1.614975 0
0.64519924 -0.45733154 -1.6161462 0
0.65463918 -0.45644453 -1.6150635 0
0.66587335 -0.45676497 -1.615075 0
0.67460924 -0.45686996 -1.6145078 0
0.68513644 -0.45623943 -1.6155882 0
0.69460505 -0.45666996 -1.6147417 0
0.7053026 -0.45681131 -1.6165931 0
0.71421528 -0.45603469 -1.61594 0
0.72463673 -0.4569875 -1.6143166 0
0.73552603 -0.45768899 -1.6144301 0
0.74433005 -0.45594102 -1.6151402 0
0.75460505 -0.4573375 -1.6139165 0
0.76465899 -0.45723605 -1.6141201 0
0.77494234 -0.45717385 -1.6160462 0
0.78577399 -0.45766503 -1.6137202 0
0.7954483 -0.45668331 -1.6148 0
0.80475616 -0.45594543 -1.6156076 0
0.81471795 -0.45675302 -1.6149499 0
0.8239789 -0.45659223 -1.6135889 0
0.83325994 -0.45548332 -1.6159333 0
0.84292501 -0.45592499 -1.6128 0
-1.03503 -0.44676098 -1.6137699 0
-1.0248286 -0.44531637 -1.6159213 0
-1.0162799 -0.446383 -1.6161999 0
-1.0047858 -0.44702142 -1.6144429 0
-0.99422997 -0.4472822 -1.6159333 0
-0.98575145 -0.44456857 -1.6141428 0
-0.94107997 -0.44251502 -1.6179 0
-0.93661499 -0.44279501 -1.6127 0
-0.82028997 -0.440465 -1.6166 0
-0.81540304 -0.4453508 -1.615854 0
-0.80539572 -0.44717291 -1.6163356 0
-0.79538 -0.44736546 -1.6168728 0
-0.78489244 -0.44785997 -1.6152375 0
-0.77603102 -0.44760799 -1.6155599 0
-0.76507753 -0.44727001 -1.6151918 0
-0.75591421 -0.44801167 -1.6152334 0
-0.74550331 -0.44813001 -1.6161666 0
-0.73608887 -0.44815335 -1.6162666 0
-0.72541428 -0.44844002 -1.6164 0
-0.7141661 -0.44716769 -1.6170845 0
-0.70453638 -0.44756457 -1.617009 0
-0.69506192 -0.44698268 -1.6162531 0
-0.68535119 -0.44665062 -1.6164058 0
-0.6743446 -0.44725093 -1.6164455 0
-0.66432399 -0.44689599 -1.6148899 0
-0.65443158 -0.44711691 -1.6159307 0
-0.64514697 -0.4471392 -1.6160076 0
-0.63537925 -0.44723931 -1.6150668 0
-0.62604111 -0.44739002 -1.615622 0
-0.61593813 -0.44790316 -1.6157625 0
-0.60548842 -0.44744077 -1.6151614 0
-0.59538919 -0.44769335 -1.6172333 0
-0.58515334 -0.44846585 -1.6158084 0
-0.57485747 -0.44796124 -1.616375 0
-0.56474769 -0.44745767 -1.6161923 0
-0.55531204 -0.44735903 -1.6165699 0
-0.54399252 -0.44735003 -1.6154666 0
-0.53507328 -0.44851997 -1.6175778 0
-0.525249 -0.44834104 -1.61568 0
-0.51505101 -0.44823599 -1.6152899 0
-0.50453907 -0.44805822 -1.6165 0
-0.49541157 -0.44777381 -1.6173079 0
-0.48409542 -0.44690615 -1.6171079 0
-0.47510096 -0.44823819 -1.6159819 0
-0.46543777 -0.4484922 -1.6167887 0
-0.45464125 -0.44875628 -1.616025 0
-0.44516835 -0.44820166 -1.6175166 0
-0.43550232 -0.44784847 -1.6166153 0
-0.4255493 -0.44757 -1.6173213 0
-0.41529167 -0.44786331 -1.6167833 0
-0.40523872 -0.44738811 -1.6166749 0
-0.39583337 -0.44794667 -1.6183 0
-0.38746598 -0.44863802 -1.618 0
-0.37457713 -0.44902712 -1.6167001 0
-0.36561835 -0.44815168 -1.6172999 0
-0.354931 -0.44807202 -1.6172301 0
-0.34674001 -0.44864669 -1.6169834 0
-0.33486599 -0.44760999 -1.6174698 0
-0.32596377 -0.44885752 -1.6172251 0
-0.31574833 -0.44937167 -1.6174999 0
-0.30473 -0.44837999 -1.6170667 0
-0.29646334 -0.44904003 -1.6163 0
-0.28289998 -0.44914001 -1.6166 0
-0.277908 -0.44908199 -1.6158199 0
-0.25374749 -0.44878998 -1.61695 0
-0.245175 -0.44819498 -1.61955 0
-0.2335625 -0.44828498 -1.618325 0
-0.226045 -0.44823 -1.6173127 0
-0.214672 -0.448948 -1.61658 0
-0.20538001 -0.44846666 -1.6173834 0
-0.1950475 -0.44925752 -1.6170626 0
-0.18032999 -0.44883999 -1.6187 0
-0.17497666 -0.44900331 -1.6193333 0
-0.16148999 -0.44881999 -1.6186 0
-0.15387167 -0.44930831 -1.6183 0
-0.143995 -0.44858 -1.6178 0
-0.13302 -0.44851798 -1.61886 0
-0.12835334 -0.44927999 -1.6182333 0
-0.113678 -0.44889203 -1.6176399 0
-0.10599 -0.44872335 -1.6183 0
-0.093833201 -0.44886604 -1.61628 0
-0.085859157 -0.44844332 -1.6194333 0
-0.070197001 -0.448165 -1.61945 0
-0.067521997 -0.44883999 -1.6187 0
-0.052315336 -0.44819 -1.6185001 0
-0.0460428 -0.44846201 -1.6186402 0
-0.033901498 -0.44909501 -1.61965 0
-0.029874001 -0.44905001 -1.6195 0
0.0078322003 -0.44903001 -1.6194 0
0.071478501 -0.44912499 -1.61975 0
0.10412 -0.44819999 -1.6196001 0
0.16596 -0.44909999 -1.6197 0
0.57473999 -0.44394001 -1.62 0
-0.94201201 -0.43761402 -1.6170399 0
-0.9370259 -0.43629605 -1.6145799 0
-0.82163501 -0.43869001 -1.6164501 0
0.78128999 -0.4702 -1.602 0
-0.55690002 -0.46097001 -1.6001 0
-0.53594995 -0.46009499 -1.6029501 0
-0.30744499 -0.46021497 -1.6033499 0
-0.29222 -0.46110001 -1.6005 0
-0.28678 -0.46101001 -1.6002001 0
-0.26815 -0.46004 -1.6028 0
-0.25176001 -0.461 -1.6001 0
-0.204335 -0.46064001 -1.6019 0
-0.19621199 -0.46092001 -1.60224 0
-0.17154001 -0.461 -1.6002001 0
-0.14492001 -0.46101999 -1.6002001 0
-0.11301 -0.46281001 -1.6004 0
-0.1037025 -0.46078253 -1.60235 0
-0.099710003 -0.46020001 -1.6033 0
-0.083738998 -0.46478 -1.6009001 0
-0.070432 -0.46303999 -1.6012 0
-0.067739002 -0.46351668 -1.6027666 0
-0.053165 -0.46104997 -1.6003499 0
-0.0451345 -0.460605 -1.60175 0
-0.033582665 -0.46094 -1.6019167 0
-0.027868001 -0.46107 -1.6004 0
-0.0043091201 -0.46150598 -1.6018999 0
0.0069050663 -0.46092001 -1.6019 0
0.01572625 -0.46076 -1.6037999 0
0.0239652 -0.46123201 -1.60096 0
0.034259602 -0.46097201 -1.6024401 0
0.048410501 -0.46219003 -1.601325 0
0.054787427 -0.46106577 -1.6020715 0
0.0654056 -0.46155801 -1.6020801 0
0.075043254 -0.46157002 -1.6021125 0
0.085036203 -0.46111399 -1.6041 0
0.094360419 -0.46200141 -1.6010715 0
0.10551375 -0.46131876 -1.6027499 0
0.11588001 -0.46223873 -1.6013999 0
0.12425376 -0.4610725 -1.6033875 0
0.13503779 -0.4608922 -1.6037334 0
0.14521 -0.46085802 -1.60324 0
0.15478557 -0.46163332 -1.6036667 0
0.16572571 -0.46128568 -1.6028429 0
0.17555888 -0.46176556 -1.6021445 0
0.18564299 -0.46200699 -1.60359 0
0.19459635 -0.46185449 -1.6030636 0
0.20555899 -0.46214399 -1.6022501 0
0.21482749 -0.46101373 -1.6032 0
0.225244 -0.461685 -1.6037 0
0.23532502 -0.46183828 -1.6045332 0
0.24503309 -0.46230155 -1.6022999 0
0.25468335 -0.46149778 -1.6031998 0
0.26461914 -0.4618327 -1.6024818 0
0.27466667 -0.46254888 -1.6054556 0
0.28519168 -0.46231672 -1.6041833 0
0.29477888 -0.46180779 -1.6029334 0
0.30451128 -0.46236938 -1.6033065 0
0.31469634 -0.46159089 -1.6059546 0
0.32473335 -0.46274933 -1.6037335 0
0.33523908 -0.46193907 -1.6055272 0
0.34555694 -0.46244541 -1.6032307 0
0.35494086 -0.46260279 -1.6034455 0
0.363931 -0.46234599 -1.60359 0
0.37585771 -0.46219155 -1.6060615 0
0.38439333 -0.46280777 -1.6057112 0
0.39542431 -0.46335214 -1.6051714 0
0.40438929 -0.46289003 -1.6054069 0
0.41469252 -0.46280754 -1.6038584 0
0.42561439 -0.4635869 -1.6052313 0
0.43491152 -0.46256155 -1.6036233 0
0.44517571 -0.46360859 -1.6052428 0
0.45480853 -0.46339613 -1.6041769 0
0.46416846 -0.46333051 -1.6049159 0
0.47526789 -0.46230862 -1.6046286 0
0.56673414 -0.46332335 -1.6030666 0
0.57593918 -0.46307668 -1.6042415 0
0.58507997 -0.46385181 -1.6038909 0
0.59587401 -0.46338996 -1.60478 0
0.60457283 -0.46237785 -1.6052641 0
0.61544997 -0.46220729 -1.6048092 0
0.62584639 -0.46391088 -1.6057091 0
0.63443935 -0.46367127 -1.6040064 0
0.64564276 -0.46375453 -1.6046817 0
0.65419185 -0.46263906 -1.6046729 0
0.66562647 -0.46305853 -1.6028856 0
0.67480183 -0.4628973 -1.6027817 0
0.68415791 -0.46340784 -1.6040429 0
0.69510645 -0.46251568 -1.6040285 0
0.70405102 -0.46216601 -1.6046801 0
0.71465385 -0.46311617 -1.6041616 0
0.72457856 -0.46358711 -1.6046642 0
0.73376 -0.46331379 -1.6042999 0
0.74545604 -0.46386197 -1.6046867 0
0.75433218 -0.46314335 -1.604111 0
0.76521081 -0.46375 -1.6035252 0
0.7745108 -0.46280634 -1.6046909 0
0.78463668 -0.46386167 -1.6048889 0
0.79478997 -0.46353471 -1.6055734 0
0.80377251 -0.46231496 -1.6051251 0
0.81509501 -0.4626444 -1.6049688 0
0.82530093 -0.46205366 -1.6053637 0
0.83500499 -0.4626317 -1.60675 0
0.84498227 -0.46288666 -1.605289 0
0.85309333 -0.46354666 -1.6008333 0
-1.0521333 -0.45451331 -1.6013666 0
-1.0442444 -0.45299 -1.6029667 0
-1.0355934 -0.45347065 -1.6052201 0
-1.0247 -0.45340601 -1.6037099 0
-1.0156293 -0.45416239 -1.6045703 0
-1.0032667 -0.45358667 -1.6044167 0
-0.99513835 -0.45425001 -1.6035999 0
-0.9849425 -0.45460165 -1.6033832 0
-0.97954005 -0.45603332 -1.6007333 0
-0.92363006 -0.4544875 -1.602 0
-0.81150401 -0.45254201 -1.6032 0
-0.80461335 -0.45334733 -1.6034865 0
-0.79567665 -0.45479336 -1.6060084 0
-0.78505462 -0.45351765 -1.6046001 0
-0.77525574 -0.45414859 -1.6059428 0
-0.76536143 -0.4540607 -1.6051215 0
-0.75572538 -0.45448118 -1.6053646 0
-0.74576491 -0.45549297 -1.60548 0
-0.73492181 -0.45446542 -1.605191 0
-0.72475922 -0.45464998 -1.6047385 0
-0.71426773 -0.45386308 -1.6043923 0
-0.70512229 -0.45402846 -1.6059386 0
-0.6942758 -0.45393783 -1.6047144 0
-0.68518585 -0.45370588 -1.6053585 0
-0.6747551 -0.45434856 -1.6043571 0
-0.66442496 -0.45451784 -1.60455 0
-0.65548158 -0.45459732 -1.6053473 0
-0.64590132 -0.4543947 -1.6051533 0
-0.63516831 -0.45387444 -1.604339 0
-0.62521267 -0.45373729 -1.6061532 0
-0.61479312 -0.45438105 -1.6048948 0
-0.60555744 -0.45442814 -1.6065438 0
-0.59575856 -0.45427927 -1.6054786 0
-0.58492625 -0.45422876 -1.6054624 0
-0.57480752 -0.45412558 -1.6047313 0
-0.56426263 -0.45459664 -1.60586 0
-0.55496061 -0.45461473 -1.6058117 0
-0.54482144 -0.45540428 -1.6050072 0
-0.53528059 -0.4554714 -1.6035801 0
-0.52484304 -0.45429453 -1.6050351 0
-0.51504129 -0.45395333 -1.6056466 0
-0.5061869 -0.45409304 -1.6051615 0
-0.49580145 -0.45481285 -1.6042213 0
-0.48431888 -0.45420662 -1.60515 0
-0.47432375 -0.45480311 -1.6047876 0
-0.46535948 -0.45392001 -1.6045738 0
-0.45532212 -0.45550498 -1.6026785 0
-0.44509059 -0.45517442 -1.6052876 0
-0.43471187 -0.45551187 -1.6057562 0
-0.42519668 -0.4558028 -1.6049222 0
-0.41463938 -0.45517373 -1.6056688 0
-0.40507689 -0.45585126 -1.6053936 0
-0.39449394 -0.45574665 -1.6040666 0
-0.38465142 -0.45572004 -1.6049 0
-0.37467501 -0.45588112 -1.6045666 0
-0.36550942 -0.45553944 -1.6058002 0
-0.35456464 -0.45650926 -1.6046537 0
-0.34545663 -0.45538864 -1.6057132 0
-0.33460668 -0.45525613 -1.6044389 0
-0.32547066 -0.455432 -1.6046734 0
-0.31524786 -0.4557184 -1.6047159 0
-0.3050938 -0.45554379 -1.6059664 0
-0.29490283 -0.45646214 -1.6047786 0
-0.28544277 -0.45735496 -1.6039335 0
-0.2750096 -0.45633999 -1.6048459 0
-0.26480401 -0.456146 -1.6053652 0
-0.25494176 -0.45639408 -1.6048177 0
-0.24582763 -0.45618907 -1.605019 0
-0.23429002 -0.4570694 -1.6042781 0
-0.2247256 -0.45632309 -1.6070188 0
-0.21473999 -0.45718327 -1.6055132 0
-0.20510747 -0.45579183 -1.6047752 0
-0.19399643 -0.45747361 -1.6038857 0
-0.18500637 -0.45692548 -1.6036907 0
-0.17611587 -0.45659235 -1.6050998 0
-0.16503668 -0.45805752 -1.6046084 0
-0.15465766 -0.45709413 -1.6065118 0
-0.14482 -0.45710543 -1.6048615 0
-0.13593526 -0.45614895 -1.606542 0
-0.1247953 -0.45669582 -1.6050941 0
-0.11463599 -0.45734203 -1.6048065 0
-0.10504416 -0.45704249 -1.6051583 0
-0.095479354 -0.45679945 -1.6047822 0
-0.085347109 -0.45781004 -1.6055388 0
-0.074390113 -0.45735726 -1.6052943 0
-0.065297164 -0.45781913 -1.6043501 0
-0.056279939 -0.45655301 -1.6053293 0
-0.045336135 -0.45775932 -1.6046401 0
-0.034221057 -0.45731473 -1.6072766 0
-0.025945332 -0.45811224 -1.6045001 0
-0.014843636 -0.45840636 -1.6046637 0
-0.0051383665 -0.457715 -1.6054063 0
0.004926627 -0.45772001 -1.6060729 0
0.015214834 -0.45700336 -1.6070582 0
0.024083553 -0.45717001 -1.606011 0
0.035537772 -0.4580369 -1.6052616 0
0.045511767 -0.45817083 -1.6058077 0
0.054201432 -0.45704076 -1.6071786 0
0.065640412 -0.45884749 -1.6064416 0
0.076296382 -0.45660123 -1.6073062 0
0.084536895 -0.45775399 -1.60545 0
0.094973505 -0.45884082 -1.6049081 0
0.10475 -0.45793748 -1.6056999 0
0.11447376 -0.45869249 -1.6045749 0
0.1240025 -0.45857877 -1.6071626 0
0.13596332 -0.45940331 -1.6063666 0
0.14514001 -0.45875335 -1.6069666 0
0.15430111 -0.45803112 -1.6054889 0
0.16543417 -0.45799664 -1.6069499 0
0.17476857 -0.45882002 -1.6059573 0
0.18490778 -0.45842335 -1.6075444 0
0.19479835 -0.45897499 -1.6077833 0
0.203932 -0.45847997 -1.6078501 0
0.21549401 -0.45889798 -1.60574 0
0.22447222 -0.4576833 -1.6083666 0
0.23511875 -0.45834497 -1.6078875 0
0.24474667 -0.45875168 -1.607 0
0.25451374 -0.45868373 -1.6067374 0
0.26607335 -0.45859003 -1.6074222 0
0.27597332 -0.45982 -1.6078 0
0.28522572 -0.45909855 -1.6077858 0
0.29527166 -0.45895168 -1.6076666 0
0.30434799 -0.45885199 -1.6079199 0
0.314248 -0.45840201 -1.6087401 0
0.32421336 -0.45959333 -1.607 0
0.33855 -0.45954001 -1.6068 0
0.34549499 -0.45927501 -1.6058999 0
0.354184 -0.45893803 -1.60704 0
0.36585751 -0.4596 -1.6085249 0
0.37173668 -0.45929334 -1.6079 0
0.38507998 -0.45952669 -1.6068001 0
0.39271501 -0.4585925 -1.608 0
0.40612337 -0.459115 -1.60825 0
0.41567251 -0.45942 -1.6078751 0
0.42512602 -0.45925802 -1.60816 0
0.434385 -0.4590975 -1.6081749 0
0.44505668 -0.46000001 -1.6084666 0
0.45396665 -0.45990333 -1.6080999 0
0.46445 -0.45578498 -1.609 0
0.48248401 -0.45819998 -1.6068599 0
0.56624138 -0.45685425 -1.6069857 0
0.57447666 -0.45970666 -1.6074333 0
0.58245665 -0.45901668 -1.6088667 0
0.60767001 -0.45921001 -1.6076332 0
0.61057001 -0.45863 -1.6094 0
0.62657756 -0.45923501 -1.608675 0
0.64906001 -0.45969999 -1.6073999 0
0.65579492 -0.45899665 -1.6078333 0
0.66535664 -0.45953333 -1.6068333 0
0.67663997 -0.45969248 -1.605925 0
0.69409662 -0.45942998 -1.6084 0
0.70573997 -0.45952001 -1.6068 0
0.71655005 -0.45942748 -1.6079 0
0.72558498 -0.45927501 -1.6087999 0
0.742275 -0.45973998 -1.6075 0
0.75634503 -0.459795 -1.6077499 0
0.76340002 -0.459815 -1.6078 0
0.80333 -0.45936999 -1.6062 0
0.82599998 -0.45491001 -1.6092 0
0.83447802 -0.45808998 -1.6077801 0
0.84207994 -0.45888999 -1.6084334 0
-1.0413001 -0.44971001 -1.6093 0
-1.0332 -0.44883335 -1.6082667 0
-1.0278 -0.449415 -1.6082499 0
-1.014725 -0.44925502 -1.6092249 0
-1.0085 -0.44811001 -1.6098 0
-0.99057001 -0.44975001 -1.6095001 0
-0.98393995 -0.44890332 -1.6085334 0
-0.97804999 -0.44406 -1.6077499 0
-0.94207001 -0.44365999 -1.6064 0
-0.93868196 -0.443398 -1.6079 0
-0.92505503 -0.44779998 -1.6025 0
-0.91892999 -0.44892001 -1.6003 0
-0.81434715 -0.4473643 -1.6062287 0
-0.81 -0.44811001 -1.6098 0
-0.78100002 -0.44973001 -1.6094 0
-0.77457666 -0.44972 -1.6093334 0
-0.76509666 -0.44976333 -1.6094667 0
-0.71173 -0.44975999 -1.6095001 0
-0.70223999 -0.44962001 -1.609 0
-0.67799997 -0.44984001 -1.6098 0
-0.66708004 -0.4488425 -1.6093251 0
-0.63381499 -0.44960001 -1.6089001 0
-0.62749004 -0.44933498 -1.60795 0
-0.55596 -0.44991001 -1.61 0
-0.54710001 -0.44817001 -1.61 0
-0.513955 -0.44979 -1.60955 0
-0.48372999 -0.44951665 -1.6086 0
-0.46983001 -0.44980001 -1.6095999 0
-0.43044001 -0.44975999 -1.6095001 0
-0.31193 -0.44973001 -1.6094 0
0.18944 -0.47023001 -1.5901999 0
0.25584999 -0.47031999 -1.5905 0
0.32677001 -0.47073999 -1.5919 0
0.33791 -0.47205999 -1.5904 0
0.34494999 -0.47111499 -1.59015 0
0.35359001 -0.47031999 -1.59045 0
0.37703001 -0.4714025 -1.591125 0
0.38426602 -0.47120601 -1.59102 0
0.39458996 -0.47105002 -1.5914249 0
0.40294334 -0.47123 -1.5915667 0
0.41557336 -0.47044834 -1.5928835 0
0.42396402 -0.47149199 -1.5920401 0
0.43607667 -0.47147334 -1.5903667 0
0.44144002 -0.47184801 -1.59086 0
0.46640667 -0.47284999 -1.5911001 0
0.47029001 -0.47059 -1.5914 0
0.55923998 -0.47117501 -1.5903499 0
0.56745499 -0.47139251 -1.5910749 0
0.57422 -0.47075999 -1.5904499 0
0.58591425 -0.47094002 -1.5925428 0
0.59118998 -0.47053 -1.5912 0
0.60660666 -0.47027001 -1.5922999 0
0.62575144 -0.47176573 -1.5919571 0
0.63718998 -0.47059 -1.592875 0
0.64482999 -0.47099665 -1.5927334 0
0.65413797 -0.47157001 -1.5923001 0
0.66502249 -0.4709025 -1.592425 0
0.67681205 -0.47158605 -1.5911601 0
0.68488497 -0.47041249 -1.5922999 0
0.70592338 -0.47034335 -1.5905666 0
0.71607006 -0.47122502 -1.59355 0
0.72483504 -0.47051999 -1.5941501 0
0.73463148 -0.47107002 -1.5929998 0
0.74405003 -0.47126397 -1.59246 0
0.76438999 -0.47029999 -1.5904 0
0.77818328 -0.47079 -1.5940332 0
0.78632873 -0.47174996 -1.5938376 0
0.79332 -0.47145 -1.5913249 0
0.80528665 -0.47175667 -1.5913334 0
0.81401831 -0.47138998 -1.5930834 0
0.827595 -0.47312748 -1.5910001 0
0.83248001 -0.47205999 -1.5904 0
0.84515399 -0.47153202 -1.59216 0
0.85363001 -0.47169331 -1.5911335 0
0.8653 -0.47031 -1.5904 0
-1.0643333 -0.46072331 -1.5911666 0
-1.0578001 -0.46084499 -1.5905 0
-1.0418999 -0.460325 -1.5918 0
-1.03425 -0.46017501 -1.5913 0
-1.02685 -0.46097249 -1.590925 0
-1.0124 -0.46098 -1.591 0
-1.0034 -0.46184999 -1.5908 0
-0.99645329 -0.46026 -1.5915999 0
-0.98400795 -0.46114999 -1.59454 0
-0.91582805 -0.46148401 -1.59208 0
-0.80311 -0.460985 -1.592525 0
-0.79577601 -0.461694 -1.5928199 0
-0.78417003 -0.46130139 -1.5933857 0
-0.77494663 -0.46128666 -1.592 0
-0.76377285 -0.46107143 -1.5934572 0
-0.75511873 -0.46223003 -1.5915374 0
-0.74520332 -0.46169332 -1.5923833 0
-0.73498142 -0.46134713 -1.5909144 0
-0.72408253 -0.46176124 -1.5920874 0
-0.71532327 -0.46116832 -1.5916166 0
-0.70538002 -0.46116856 -1.5920572 0
-0.69458997 -0.46184751 -1.5924125 0
-0.68638998 -0.4624857 -1.5923144 0
-0.67482001 -0.46205625 -1.592375 0
-0.6650883 -0.46161249 -1.593125 0
-0.65507835 -0.46163583 -1.5931917 0
-0.6455943 -0.46231288 -1.5916141 0
-0.63485503 -0.46074501 -1.5912333 0
-0.62443334 -0.46086001 -1.5925665 0
-0.615358 -0.46147901 -1.59391 0
-0.60469103 -0.46210498 -1.5917699 0
-0.59542 -0.46159625 -1.594625 0
-0.58483601 -0.46149802 -1.59216 0
-0.57327795 -0.46060401 -1.5927601 0
-0.56492394 -0.46099401 -1.5928299 0
-0.55425 -0.46130002 -1.5930667 0
-0.54394752 -0.46238002 -1.592275 0
-0.53524178 -0.46157542 -1.5938182 0
-0.5236271 -0.46130291 -1.5942715 0
-0.51454145 -0.46212143 -1.5935857 0
-0.50588596 -0.46171403 -1.59166 0
-0.49443334 -0.46222222 -1.5935222 0
-0.48496091 -0.4623391 -1.5931545 0
-0.47506714 -0.46183571 -1.5926 0
-0.46422628 -0.4617275 -1.5927875 0
-0.45482334 -0.46211332 -1.5924888 0
-0.4458414 -0.46224713 -1.5922714 0
-0.43408796 -0.46164668 -1.5934665 0
-0.42452002 -0.46207455 -1.5933636 0
-0.41493252 -0.46137747 -1.5938417 0
-0.40437123 -0.46180746 -1.5938126 0
-0.39458001 -0.46240997 -1.5928222 0
-0.38482603 -0.46215937 -1.5936202 0
-0.37538296 -0.46160603 -1.5961801 0
-0.36469001 -0.46193725 -1.5928909 0
-0.35619846 -0.46261612 -1.5936153 0
-0.34356415 -0.46208915 -1.5943083 0
-0.33601856 -0.46331638 -1.5934213 0
-0.32483909 -0.46210822 -1.5923545 0
-0.31392825 -0.46335295 -1.5943942 0
-0.30586168 -0.46292087 -1.5957417 0
-0.29535002 -0.46343049 -1.594645 0
-0.28473842 -0.46303529 -1.5944053 0
-0.27388921 -0.4623608 -1.5941001 0
-0.26490429 -0.46322352 -1.5948428 0
-0.2551522 -0.46288389 -1.5932001 0
-0.24495716 -0.46242216 -1.5946 0
-0.23511182 -0.46225455 -1.5934545 0
-0.22509307 -0.46243003 -1.5938691 0
-0.21516201 -0.46241468 -1.59526 0
-0.2039661 -0.46352836 -1.5944612 0
-0.194708 -0.46356666 -1.5945069 0
-0.18550999 -0.46326765 -1.594059 0
-0.17584813 -0.46283123 -1.5958064 0
-0.16475999 -0.46268496 -1.5968063 0
-0.15388002 -0.46200427 -1.5953857 0
-0.14509933 -0.46308407 -1.5939867 0
-0.1358275 -0.46308875 -1.5952063 0
-0.12457778 -0.46324778 -1.5944389 0
-0.11407318 -0.46366209 -1.5953264 0
-0.10537214 -0.46359426 -1.5939929 0
-0.095930472 -0.46289995 -1.5952104 0
-0.084622897 -0.46347627 -1.5959737 0
-0.075429857 -0.46225771 -1.5951924 0
-0.064171098 -0.46303901 -1.59506 0
-0.056420665 -0.46369907 -1.5936716 0
-0.045101453 -0.46316051 -1.5940049 0
-0.034504663 -0.46463951 -1.5951952 0
-0.024524502 -0.46410203 -1.593985 0
-0.015469334 -0.46397522 -1.5963523 0
-0.00568027 -0.46486098 -1.595685 0
0.0049605398 -0.46434829 -1.5941696 0
0.015213649 -0.46412349 -1.5955451 0
0.025404539 -0.46429542 -1.5952538 0
0.034827497 -0.46442604 -1.5953848 0
0.044137944 -0.46416214 -1.5946165 0
0.055567466 -0.46459273 -1.5940267 0
0.0643057 -0.46495399 -1.5942551 0
0.075299934 -0.46427 -1.59646 0
0.085532933 -0.46453559 -1.5957186 0
0.095366582 -0.46533784 -1.5956787 0
0.10534067 -0.46461266 -1.5953133 0
0.11458267 -0.46558598 -1.5954666 0
0.12585334 -0.46522224 -1.5953056 0
0.13475308 -0.46406001 -1.5962691 0
0.14475681 -0.46449229 -1.5954819 0
0.15603928 -0.46435362 -1.5940143 0
0.16473335 -0.46504 -1.5947108 0
0.17495888 -0.46557224 -1.5948557 0
0.18519187 -0.46620128 -1.5944438 0
0.19484112 -0.46553999 -1.5944225 0
0.20539467 -0.46611866 -1.5953865 0
0.21441159 -0.46542057 -1.595742 0
0.22463883 -0.4652794 -1.5943471 0
0.2350906 -0.46664357 -1.5955589 0
0.24513231 -0.46638694 -1.5955923 0
0.25457472 -0.46574235 -1.5942061 0
0.26503766 -0.46651649 -1.5951236 0
0.27491474 -0.4659732 -1.5952002 0
0.28496882 -0.46679473 -1.596094 0
0.2948072 -0.46673557 -1.5958778 0
0.30559501 -0.46682692 -1.5943813 0
0.3150259 -0.46647179 -1.5956823 0
0.32569733 -0.46695068 -1.5946668 0
0.33506176 -0.46614647 -1.595247 0
0.34442717 -0.46673211 -1.5954787 0
0.35541868 -0.46662134 -1.5962733 0
0.36465502 -0.46602932 -1.5943143 0
0.37488377 -0.46657312 -1.5957062 0
0.38538897 -0.46622416 -1.5957105 0
0.39509499 -0.46778831 -1.5956 0
0.4051221 -0.46739072 -1.5960072 0
0.41407004 -0.4663516 -1.5955501 0
0.42567998 -0.46754539 -1.5950615 0
0.43510914 -0.46722916 -1.5946499 0
0.44467771 -0.46753538 -1.5950309 0
0.45467421 -0.46732581 -1.5949917 0
0.46532398 -0.46765703 -1.5943899 0
0.47357836 -0.46575502 -1.5949501 0
0.55575001 -0.4666214 -1.5930284 0
0.56519574 -0.46780649 -1.5953785 0
0.57511455 -0.46711361 -1.5944909 0
0.58504784 -0.46753782 -1.5967221 0
0.5948993 -0.46719801 -1.59626 0
0.60545582 -0.46669164 -1.5961833 0
0.615246 -0.46730933 -1.5970932 0
0.62522447 -0.46811888 -1.5967445 0
0.63497001 -0.46788222 -1.5959333 0
0.64581585 -0.46774086 -1.5963832 0
0.6552192 -0.46685615 -1.5962768 0
0.66525501 -0.46777335 -1.5955582 0
0.67400622 -0.46705127 -1.5940874 0
0.68641609 -0.46718919 -1.5965693 0
0.69526362 -0.46753094 -1.5964637 0
0.70546281 -0.46711925 -1.5968001 0
0.71491599 -0.46804103 -1.5968601 0
0.72512001 -0.46814001 -1.5970501 0
0.73541623 -0.46773249 -1.5971 0
0.74579549 -0.46810997 -1.5960777 0
0.75405413 -0.46649578 -1.5961 0
0.76457405 -0.46761394 -1.59541 0
0.77367252 -0.46788001 -1.596875 0
0.78611404 -0.46847001 -1.5983799 0
0.79588181 -0.46780637 -1.5963818 0
0.80513883 -0.46640444 -1.5947556 0
0.81530607 -0.46758398 -1.59644 0
0.82502592 -0.4667033 -1.5961734 0
0.8344878 -0.4665938 -1.5953922 0
0.84528863 -0.46629137 -1.5959868 0
0.85560864 -0.46651193 -1.59512 0
0.86398 -0.46812499 -1.5919499 0
-1.0644714 -0.45746571 -1.5937144 0
-1.05583 -0.45718703 -1.59567 0
-1.044825 -0.45634499 -1.5952749 0
-1.03566 -0.45814699 -1.59614 0
-1.0244555 -0.45748889 -1.5957778 0
-1.0163 -0.4588657 -1.5952572 0
-1.0050727 -0.45737278 -1.5955273 0
-0.99468178 -0.45710185 -1.5950999 0
-0.9857372 -0.45694143 -1.5952286 0
-0.97570825 -0.45614496 -1.5970167 0
-0.96013999 -0.45027 -1.5928 0
-0.95494002 -0.45113999 -1.5926 0
-0.92451924 -0.45572713 -1.5945357 0
-0.91586989 -0.45661452 -1.5940455 0
-0.81193 -0.45354 -1.5980999 0
-0.80596858 -0.45677158 -1.5944768 0
-0.79520774 -0.4579767 -1.5955443 0
-0.78647226 -0.45850551 -1.5973889 0
-0.77610201 -0.45724303 -1.59589 0
-0.76604086 -0.45825359 -1.5970184 0
-0.75404626 -0.45812875 -1.5967751 0
-0.74530602 -0.45804602 -1.5975101 0
-0.73511368 -0.45816821 -1.5961636 0
-0.72481823 -0.4583275 -1.5962583 0
-0.71356404 -0.45798802 -1.59673 0
-0.70490694 -0.45796704 -1.5966501 0
-0.69480366 -0.45763636 -1.5959274 0
-0.68489838 -0.4579033 -1.5972 0
-0.67448503 -0.45830002 -1.5960699 0
-0.66567624 -0.45774248 -1.5976126 0
-0.65444249 -0.4584575 -1.598725 0
-0.64449698 -0.45865598 -1.59553 0
-0.63477218 -0.45813668 -1.5960667 0
-0.62503588 -0.45789912 -1.596725 0
-0.61467201 -0.45868999 -1.59802 0
-0.60474503 -0.458152 -1.59673 0
-0.59464604 -0.45847303 -1.59727 0
-0.58454001 -0.45779496 -1.59605 0
-0.57554096 -0.45839906 -1.5969899 0
-0.5648334 -0.45768112 -1.5983889 0
-0.555875 -0.45891166 -1.5988001 0
-0.54483247 -0.45866877 -1.596475 0
-0.53249335 -0.45754334 -1.5998334 0
-0.52492577 -0.45881143 -1.5967715 0
-0.51466995 -0.45785999 -1.5967 0
-0.50492328 -0.45858335 -1.5961751 0
-0.49497113 -0.45798889 -1.5968778 0
-0.48499304 -0.45849103 -1.59732 0
-0.4750922 -0.45907772 -1.5974222 0
-0.46415251 -0.45844248 -1.5964375 0
-0.4542833 -0.45882776 -1.5965445 0
-0.4450689 -0.45842996 -1.5971 0
-0.43559 -0.45875502 -1.598325 0
-0.4250733 -0.45887998 -1.5967499 0
-0.41401801 -0.45789999 -1.59764 0
-0.40474373 -0.45909503 -1.5964999 0
-0.39469287 -0.4587543 -1.5965713 0
-0.38958001 -0.45987001 -1.5962 0
-0.37764001 -0.4581475 -1.5990499 0
-0.36474666 -0.45852169 -1.5983667 0
-0.3559086 -0.45871142 -1.5964143 0
-0.34468445 -0.45827663 -1.5972333 0
-0.33501831 -0.45846 -1.5972333 0
-0.32531002 -0.45853552 -1.5968001 0
-0.31558666 -0.45873165 -1.5971832 0
-0.30145502 -0.45828497 -1.59955 0
-0.294745 -0.45915502 -1.5997 0
-0.27687502 -0.45995501 -1.59655 0
-0.26207 -0.45986 -1.5962 0
-0.25775334 -0.45921335 -1.5979 0
-0.242055 -0.45929253 -1.597175 0
-0.238095 -0.45946503 -1.5978 0
-0.22631201 -0.45925999 -1.5977 0
-0.21589001 -0.45944667 -1.5987333 0
-0.20792334 -0.45806667 -1.5997334 0
-0.18383001 -0.45921335 -1.5979 0
-0.17590667 -0.45899001 -1.5991334 0
-0.167485 -0.45906499 -1.59935 0
-0.15285666 -0.45908999 -1.5995001 0
-0.14223 -0.45919001 -1.5998 0
-0.13552667 -0.45912004 -1.5975833 0
-0.12675801 -0.45909601 -1.5971 0
-0.11651333 -0.45931336 -1.5982332 0
-0.095719002 -0.45756 -1.5999 0
-0.070483997 -0.45903 -1.5993 0
-0.054522004 -0.45921001 -1.5998665 0
-0.022600001 -0.45914999 -1.5997 0
0.0040207999 -0.45899999 -1.5992 0
0.044188 -0.45923001 -1.5999 0
0.47786999 -0.45991001 -1.5904 0
0.55778003 -0.45947498 -1.5978501 0
-0.97255003 -0.44714001 -1.59705 0
-0.95598143 -0.44678286 -1.5962143 0
-0.9233467 -0.44880334 -1.5978333 0
-0.81501001 -0.44701001 -1.5996 0
